# .PCD v0.7 - Point Cloud Data file format
VERSION 0.7
FIELDS x y z rgb
SIZE 4 4 4 4
TYPE F F F F
COUNT 1 1 1 1
WIDTH 1038
HEIGHT 1
VIEWPOINT 0 0 0 1 0 0 0
POINTS 1038
DATA ascii
0.649463 -0.21283516 1.0091428 1.0141519e-38
0.65518427 -0.21534953 1.0076369 1.0141519e-38
0.66494477 -0.21473137 1.005356 1.0141519e-38
0.67441368 -0.21477297 1.0023572 1.0233715e-38
0.6827805 -0.21251245 1.0009013 1.0141519e-38
0.73867869 -0.21706389 1.0010291 6.9146722e-39
0.74568224 -0.21564282 1.0045549 6.0849116e-39
0.75405687 -0.21343422 1.0074265 4.3331946e-39
0.76100808 -0.21258919 1.0096053 3.6878252e-39
0.78856337 -0.21407236 1.0094719 4.4253902e-39
0.8078022 -0.21583587 1.0035517 3.0424558e-39
0.81492895 -0.21496464 1.004974 4.8863684e-39
0.82510734 -0.21528162 1.0050981 5.2551509e-39
0.83377028 -0.21513958 1.0050993 5.2551509e-39
0.84450042 -0.21496372 1.0051005 5.2551509e-39
0.85542822 -0.21478462 1.0051018 5.2551509e-39
0.86468631 -0.21503122 1.005103 5.2551509e-39
0.87410015 -0.21501489 1.0051041 5.2551509e-39
0.36601651 -0.20315112 1.0031599 9.1273674e-39
0.37529001 -0.20479053 1.0053443 2.3970864e-39
0.52471972 -0.2012261 1.0025727 9.219563e-40
0.64848047 -0.20791201 1.009717 1.0141519e-38
0.65484685 -0.20441987 1.0085022 1.0141519e-38
0.66418427 -0.20467724 1.0062226 1.0141519e-38
0.67438388 -0.20555533 1.0030109 1.0233715e-38
0.73955637 -0.204313 1.0005491 3.1346514e-39
0.74421936 -0.20474829 1.0056552 2.9502602e-39
0.80829662 -0.20483977 1.0040473 3.8722165e-39
0.8150062 -0.20482066 1.0049698 4.8863684e-39
0.82487971 -0.2052671 1.0050793 5.2551509e-39
0.83381259 -0.20504348 1.00508 5.2551509e-39
0.84454226 -0.2047749 1.0050813 5.2551509e-39
0.85547078 -0.20502894 1.005083 5.2551509e-39
0.86458623 -0.20507082 1.0050839 5.2551509e-39
0.87394363 -0.20509742 1.0050852 5.2551509e-39
0.37426522 -0.19502598 1.0053176 2.489282e-39
0.52331465 -0.19837418 1.0066983 9.219563e-40
0.65538901 -0.19540294 1.0089986 1.0049324e-38
0.66581851 -0.19476984 1.0063481 1.0141519e-38
0.67393726 -0.19500491 1.0039481 1.0233715e-38
0.68237591 -0.19272053 1.0006552 1.0233715e-38
0.73960066 -0.19550145 1.0002619 2.6736733e-39
0.74412125 -0.1953904 1.0057055 3.0424558e-39
0.80832195 -0.19495101 1.0040354 3.8722165e-39
0.81481576 -0.19490336 1.0049354 4.7941728e-39
0.82518917 -0.19523811 1.0050601 5.2551509e-39
0.83385354 -0.19494638 1.0050611 5.2551509e-39
0.84439468 -0.19483975 1.0050623 5.2551509e-39
0.85551441 -0.19500849 1.0050637 5.2551509e-39
0.8647725 -0.19510221 1.0050651 5.2551509e-39
0.87438697 -0.19493641 1.0050662 5.2551509e-39
0.37427106 -0.18503255 1.0053239 2.489282e-39
0.65550232 -0.18458033 1.0091926 1.0049324e-38
0.66517067 -0.18458591 1.0067201 1.0141519e-38
0.67306817 -0.18464816 1.0044441 1.0233715e-38
0.68176425 -0.1850511 1.0010029 1.0233715e-38
0.73958218 -0.18544661 1.0002714 2.6736733e-39
0.74417835 -0.18536572 1.005619 2.9502602e-39
0.80834728 -0.18506162 1.0040233 3.8722165e-39
0.81491154 -0.18476477 1.0049226 4.8863684e-39
0.82466161 -0.18543591 1.0053006 5.1629553e-39
0.83389604 -0.18484819 1.0050418 5.2551509e-39
0.84481692 -0.18492356 1.0050433 5.2551509e-39
0.85555649 -0.18498689 1.0050446 5.2551509e-39
0.86495888 -0.18512899 1.0050464 5.2551509e-39
0.87423015 -0.18501693 1.0050473 5.2551509e-39
0.37433988 -0.17491923 1.0053455 2.3970864e-39
0.6481995 -0.1707015 1.0098814 1.0049324e-38
0.65514481 -0.17515872 1.0087287 1.0049324e-38
0.66564751 -0.1748296 1.0061268 1.0049324e-38
0.67440993 -0.1738385 1.0032692 1.0141519e-38
0.73956364 -0.17539226 1.0002812 2.6736733e-39
0.74412262 -0.17530186 1.0057048 3.1346514e-39
0.80822963 -0.17459738 1.0038784 3.5956296e-39
0.81506085 -0.1748312 1.0049143 4.8863684e-39
0.82527101 -0.17519066 1.0050223 5.2551509e-39
0.83393753 -0.17474918 1.0050225 5.2551509e-39
0.84466821 -0.17498645 1.0050243 5.2551509e-39
0.85559744 -0.175228 1.0050263 5.2551509e-39
0.86471587 -0.17477557 1.0050267 5.2551509e-39
0.87427253 -0.1751049 1.0050287 5.2551509e-39
0.37707692 -0.16451412 1.0050544 2.489282e-39
0.64820927 -0.16373228 1.0094752 1.0049324e-38
0.65501004 -0.16513823 1.0081285 1.0049324e-38
0.6637485 -0.16450766 1.0060458 1.0049324e-38
0.67490959 -0.16546139 1.0024674 1.0141519e-38
0.68056244 -0.16257507 1.0001671 1.0233715e-38
0.69515437 -0.16285245 1.0069116 9.957128e-39
0.73932743 -0.16486298 1.0007954 4.8863684e-39
0.74535209 -0.16632442 1.0045537 3.3190427e-39
0.75375164 -0.16463172 1.0067232 3.4112383e-39
0.76214397 -0.16594996 1.0079273 2.2126951e-39
0.77309239 -0.16680111 1.0091085 1.5673257e-39
0.78556126 -0.16679002 1.0085533 2.1204995e-39
0.79336679 -0.16682929 1.0071681 2.1204995e-39
0.80791867 -0.16637628 1.0035127 3.1346514e-39
0.81498373 -0.16488981 1.0048889 4.8863684e-39
0.82504356 -0.16518141 1.0050032 5.2551509e-39
0.83379251 -0.16490622 1.0050039 5.2551509e-39
0.84469664 -0.16517791 1.0051432 5.1629553e-39
0.85530728 -0.16505645 1.0052122 5.2551509e-39
0.86490226 -0.1648003 1.0050079 5.2551509e-39
0.87411767 -0.16492213 1.0050093 5.2551509e-39
0.377139 -0.1550113 1.0051241 2.5814776e-39
0.64595479 -0.1540408 1.0091606 9.957128e-39
0.65450692 -0.15525369 1.0071466 9.957128e-39
0.66454482 -0.15489694 1.0048401 1.0049324e-38
0.67387694 -0.1538797 1.001973 1.0141519e-38
0.68929601 -0.15812926 1.0069902 1.0141519e-38
0.70952922 -0.15267971 1.0023502 7.0068679e-39
0.73877454 -0.15580088 1.0011114 7.7444329e-39
0.74504477 -0.15541923 1.0056862 7.467846e-39
0.75110477 -0.15385091 1.009559 7.7444329e-39
0.80787861 -0.15502363 1.0035043 2.8580645e-39
0.81420505 -0.15528648 1.0048611 4.8863684e-39
0.82419753 -0.15495187 1.0052022 5.1629553e-39
0.83420622 -0.15506756 1.0049852 5.2551509e-39
0.84494191 -0.15512401 1.0049868 5.2551509e-39
0.85587662 -0.15518151 1.0049884 5.2551509e-39
0.86494333 -0.15522934 1.0049899 5.2551509e-39
0.87435997 -0.15501159 1.0049906 5.2551509e-39
0.88202536 -0.15393929 1.0063945 2.1204995e-39
0.36949247 -0.14068095 1.0001332 5.9005203e-39
0.37604818 -0.14539669 1.0048205 3.0424558e-39
0.54675096 -0.14238839 1.0064173 5.0707596e-39
0.61162984 -0.1404039 1.0092906 2.7658689e-39
0.6370315 -0.14237161 1.0096217 9.7727368e-39
0.64509636 -0.14483179 1.0079899 9.8649324e-39
0.65476978 -0.14502913 1.0058959 9.957128e-39
0.66486692 -0.14450955 1.0035294 9.957128e-39
0.67483276 -0.14547375 1.0009977 1.0049324e-38
0.7391516 -0.1451492 1.0004971 7.467846e-39
0.74477094 -0.14531733 1.0046659 7.3756504e-39
0.75125527 -0.14446715 1.0088598 7.6522373e-39
0.80763489 -0.1439971 1.0029328 2.489282e-39
0.81351787 -0.14502266 1.0049191 4.6097815e-39
0.82341111 -0.14484248 1.0048585 5.0707596e-39
0.83388406 -0.14496501 1.004966 5.2551509e-39
0.8447929 -0.14518869 1.0049679 5.2551509e-39
0.85572493 -0.14515407 1.0049695 5.2551509e-39
0.86512971 -0.14524734 1.0049708 5.2551509e-39
0.87460268 -0.14509505 1.0049721 5.2551509e-39
0.36959976 -0.13863559 1.0010016 5.2551509e-39
0.37454236 -0.13468049 1.004981 5.1629553e-39
0.38072538 -0.13050769 1.0084836 5.1629553e-39
0.40752551 -0.13991882 1.0029861 5.1629553e-39
0.54825068 -0.13862433 1.0032965 5.1629553e-39
0.55405223 -0.13458036 1.0051895 5.2551509e-39
0.56531316 -0.13191642 1.004925 6.5458897e-39
0.57492149 -0.13374752 1.0061625 6.5458897e-39
0.58469164 -0.13401198 1.0067971 6.4536941e-39
0.5951786 -0.13441926 1.007013 6.1771072e-39
0.60493875 -0.13506629 1.0070432 6.2693028e-39
0.61384219 -0.1342313 1.0074513 6.5458897e-39
0.62504083 -0.13311401 1.0075828 8.2976067e-39
0.63487411 -0.13436531 1.0068729 8.8507805e-39
0.64505321 -0.13468288 1.0054109 9.219563e-39
0.65500242 -0.13440035 1.0035224 9.1273674e-39
0.66467351 -0.13526353 1.00236 9.3117586e-39
0.67271024 -0.13584732 1.0008337 9.8649324e-39
0.7369253 -0.13897973 1.0005697 6.6380854e-39
0.74532866 -0.137569 1.0027215 7.0990635e-39
0.75467628 -0.13618897 1.0054774 6.6380854e-39
0.76458311 -0.13409851 1.0050085 6.2693028e-39
0.77417094 -0.13383995 1.0056189 6.2693028e-39
0.78467041 -0.1354886 1.0058224 6.0849116e-39
0.80856925 -0.13621254 1.0020615 1.6595213e-39
0.81402433 -0.13424385 1.0037267 3.226847e-39
0.82473928 -0.13469866 1.0043997 4.0566077e-39
0.83513224 -0.13502848 1.0044754 4.1488033e-39
0.84518176 -0.13509738 1.0044657 4.0566077e-39
0.85539609 -0.13492021 1.004425 4.0566077e-39
0.86487234 -0.13448711 1.0043917 4.0566077e-39
0.87423682 -0.1355833 1.0044909 4.240999e-39
0.88047779 -0.13500297 1.0039831 4.6097815e-39
0.36608264 -0.12112588 1.0041652 5.5317378e-39
0.37935182 -0.12940601 1.0021162 5.1629553e-39
0.38394025 -0.12840898 1.0053664 5.0707596e-39
0.39566949 -0.12749451 1.0045677 5.1629553e-39
0.40485129 -0.12553434 1.0050541 5.1629553e-39
0.4147808 -0.12357295 1.0054653 5.1629553e-39
0.42508858 -0.12228124 1.0051615 5.1629553e-39
0.4349494 -0.12154718 1.0053952 5.1629553e-39
0.44467536 -0.12085139 1.0051415 5.1629553e-39
0.4549858 -0.12093138 1.0052348 5.2551509e-39
0.46522066 -0.12137402 1.0048901 5.2551509e-39
0.47470552 -0.12241882 1.0050364 5.4395422e-39
0.48496392 -0.12354603 1.0048119 5.6239334e-39
0.49408686 -0.1252571 1.0059054 5.5317378e-39
0.50661588 -0.12796347 1.005365 5.3473465e-39
0.5136292 -0.12800141 1.0047314 5.8083247e-39
0.57847905 -0.12992047 1.0009899 5.6239334e-39
0.58699942 -0.12966049 1.0018504 5.5317378e-39
0.59531522 -0.12942229 1.0025551 5.4395422e-39
0.6052407 -0.1292192 1.0031272 5.4395422e-39
0.61497104 -0.12909637 1.0032235 5.5317378e-39
0.62522101 -0.12914602 1.002737 5.9005203e-39
0.63424313 -0.12915017 1.0019644 5.6239334e-39
0.64443254 -0.12937403 1.0015336 5.6239334e-39
0.6545096 -0.1294176 1.0002173 5.6239334e-39
0.81603909 -0.12880938 1.0011894 1.751717e-39
0.8249293 -0.12885426 1.0018806 1.751717e-39
0.83489066 -0.12907653 1.0021435 1.8439126e-39
0.8441878 -0.12875624 1.0016966 1.751717e-39
0.85528773 -0.12882739 1.0018748 1.751717e-39
0.86602557 -0.12876435 1.0016999 1.751717e-39
0.87207991 -0.1290452 1.0021168 1.8439126e-39
0.4175413 -0.11950546 1.0036262 5.1629553e-39
0.7618084 -0.11877646 1.0030118 6.9146722e-39
0.43649483 -0.1083277 1.0061942 5.1629553e-39
0.45540565 -0.10748111 1.0075825 5.5317378e-39
0.379361 0.12933005 1.0018777 5.6239334e-39
0.38377661 0.12855378 1.0054692 5.6239334e-39
0.39590254 0.12752004 1.0046979 5.6239334e-39
0.40481737 0.12561744 1.0055119 5.6239334e-39
0.41489103 0.12368084 1.0052302 5.7161291e-39
0.42506525 0.1223368 1.0048323 5.8083247e-39
0.43464047 0.12124726 1.0050077 5.9927159e-39
0.44481668 0.12099892 1.0051566 6.0849116e-39
0.45501032 0.12105562 1.0050015 6.1771072e-39
0.4647544 0.12129428 1.0050455 6.2693028e-39
0.4752107 0.12229249 1.0049058 6.3614985e-39
0.48497748 0.12354542 1.0041013 6.4536941e-39
0.49636799 0.12579727 1.0054346 6.3614985e-39
0.50499755 0.12762906 1.005906 6.1771072e-39
0.51343834 0.12800045 1.0048262 6.6380854e-39
0.57782292 0.12994558 1.0007052 5.9005203e-39
0.58700389 0.12967131 1.0018481 5.9927159e-39
0.59489775 0.12949355 1.003063 6.0849116e-39
0.60401809 0.12926576 1.0033406 5.9927159e-39
0.61353165 0.12917534 1.0034397 6.0849116e-39
0.62341118 0.12906396 1.0023415 6.0849116e-39
0.6345427 0.1292302 1.0017824 6.2693028e-39
0.64505053 0.12957543 1.0017483 5.9927159e-39
0.65369385 0.12964009 1.0007018 5.9005203e-39
0.66164541 0.12273905 1.009545 4.7941728e-39
0.81510937 0.12927306 1.001469 2.2126951e-39
0.82525009 0.12880181 1.0017282 2.489282e-39
0.8343786 0.12913017 1.0022175 2.5814776e-39
0.84425777 0.128718 1.0016648 2.489282e-39
0.85562795 0.1288126 1.0017213 2.3970864e-39
0.8646583 0.1283091 1.0026672 2.3970864e-39
0.87520039 0.12932184 1.0021305 2.6736733e-39
0.36950245 0.13857733 1.0006735 5.5317378e-39
0.37455434 0.13476497 1.0050296 5.5317378e-39
0.38066989 0.13067403 1.0089259 5.6239334e-39
0.54857433 0.13869795 1.0042263 5.4395422e-39
0.55416226 0.13456097 1.0050654 5.9005203e-39
0.56549942 0.1318499 1.0046155 7.2834548e-39
0.57507694 0.13338153 1.0059741 7.1912591e-39
0.58473885 0.134207 1.0067904 6.730281e-39
0.59531641 0.13440995 1.006922 6.730281e-39
0.60484564 0.13522674 1.0070602 6.3614985e-39
0.61397219 0.13435861 1.0075828 6.5458897e-39
0.62545288 0.13321997 1.0074528 8.3898023e-39
0.63545036 0.13450481 1.0067223 9.1273674e-39
0.64519602 0.13476865 1.0052931 9.3117586e-39
0.65509951 0.13455449 1.0036448 9.3117586e-39
0.66481626 0.13501836 1.0019299 9.5883455e-39
0.67285842 0.13678576 1.000878 1.0049324e-38
0.73963308 0.13901091 1.0002449 7.5600416e-39
0.74595076 0.1374145 1.0028354 7.5600416e-39
0.75482923 0.13644342 1.0058177 7.2834548e-39
0.76487482 0.13400744 1.0050468 6.9146722e-39
0.77443367 0.13359718 1.0048019 7.0068679e-39
0.78432435 0.13553891 1.0059891 6.6380854e-39
0.80864441 0.13599117 1.0020255 1.6595213e-39
0.81469649 0.13453092 1.0039486 3.6878252e-39
0.8247211 0.13477516 1.0044979 4.4253902e-39
0.83487272 0.13512895 1.004513 4.4253902e-39
0.84529567 0.13483016 1.004483 4.4253902e-39
0.85518646 0.13483673 1.0044802 4.3331946e-39
0.86502063 0.13461812 1.0044411 4.5175859e-39
0.87404925 0.13546112 1.0045048 4.4253902e-39
0.88055074 0.1345015 1.0039515 5.0707596e-39
0.36947614 0.14035082 1.0001507 4.7941728e-39
0.37592685 0.14531475 1.0047954 2.7658689e-39
0.54747373 0.14146306 1.0076553 5.2551509e-39
0.6098426 0.14024076 1.0096772 2.9502602e-39
0.61252409 0.14060372 1.0094588 2.3970864e-39
0.63821715 0.14318433 1.0095248 1.0049324e-38
0.64487046 0.14506534 1.0081935 1.0049324e-38
0.65481281 0.14515011 1.0059451 1.0049324e-38
0.66510695 0.144279 1.00341 1.0049324e-38
0.67375368 0.14601091 1.0014896 1.0141519e-38
0.73920709 0.14468077 1.0004681 7.6522373e-39
0.74479675 0.14488061 1.0045842 7.467846e-39
0.75136501 0.14516009 1.008998 7.6522373e-39
0.80761498 0.14382941 1.0029422 2.489282e-39
0.81487507 0.1450054 1.0048797 4.7941728e-39
0.82531238 0.14509436 1.0050032 5.2551509e-39
0.83379233 0.14514418 1.0050039 5.2551509e-39
0.84453136 0.14496699 1.0050046 5.2551509e-39
0.85597384 0.1447981 1.005091 5.0707596e-39
0.86490566 0.14493741 1.0050063 5.2551509e-39
0.87432539 0.14509696 1.0050056 5.2551509e-39
0.37708029 0.15499678 1.0051792 2.489282e-39
0.54178685 0.15748611 1.0019003 9.219563e-40
0.64633602 0.15412003 1.0091014 1.0141519e-38
0.6547333 0.15576148 1.0072541 1.0141519e-38
0.6650998 0.15458269 1.0045987 1.0141519e-38
0.67435467 0.15452147 1.0019002 1.0141519e-38
0.73882067 0.155371 1.0010871 7.2834548e-39
0.7450127 0.15493339 1.0053703 7.3756504e-39
0.75085944 0.15453809 1.0093817 7.5600416e-39
0.80786091 0.15486723 1.0035125 2.7658689e-39
0.81505364 0.15514062 1.0048859 4.7941728e-39
0.82504123 0.1551577 1.0050044 5.2551509e-39
0.83397573 0.15498641 1.0050051 5.2551509e-39
0.84489954 0.1551562 1.0050061 5.2551509e-39
0.85564154 0.1550775 1.0050068 5.2551509e-39
0.86449325 0.15513194 1.0048412 5.2551509e-39
0.87432581 0.15501992 1.0050054 5.2551509e-39
0.34352103 0.1642781 1.0034111 2.6736733e-39
0.37703279 0.16471109 1.0051473 2.489282e-39
0.39085221 0.16031025 1.0044606 2.489282e-39
0.64842218 0.16453299 1.0094576 1.0141519e-38
0.65539598 0.16523093 1.0079042 1.0141519e-38
0.66447532 0.16477625 1.0055314 1.0141519e-38
0.67511892 0.16603386 1.0023959 1.0233715e-38
0.68056971 0.16314709 1.000163 1.0233715e-38
0.73887885 0.16356151 1.0006405 5.0707596e-39
0.74543065 0.16566457 1.0045874 3.5956296e-39
0.75473231 0.16475318 1.0060481 3.0424558e-39
0.7615431 0.16597152 1.0088207 2.489282e-39
0.77289134 0.16678023 1.0084242 1.751717e-39
0.78420079 0.16677904 1.0084188 2.5814776e-39
0.79293478 0.16673073 1.0057909 2.3970864e-39
0.80757713 0.16640224 1.0030497 2.7658689e-39
0.81501424 0.16508125 1.0049038 4.8863684e-39
0.82530731 0.16516392 1.0050056 5.2551509e-39
0.83416039 0.16483317 1.0050063 5.2551509e-39
0.84451687 0.16510776 1.0050071 5.2551509e-39
0.85544646 0.16485052 1.0050075 5.2551509e-39
0.86504906 0.16527976 1.0050066 5.2551509e-39
0.87452286 0.16493864 1.0050067 5.2551509e-39
0.37430254 0.17486562 1.0053357 2.489282e-39
0.65483344 0.17546876 1.0087517 1.0141519e-38
0.66527981 0.17472424 1.0060992 1.0141519e-38
0.67434096 0.17441292 1.0033085 1.0233715e-38
0.73962498 0.17490213 1.0002491 2.6736733e-39
0.74414825 0.17482457 1.0056918 3.1346514e-39
0.80824959 0.17444772 1.0038688 3.5956296e-39
0.81504887 0.17503449 1.0048884 4.7941728e-39
0.82503605 0.17522249 1.0050068 5.2551509e-39
0.83379352 0.17495005 1.0050073 5.2551509e-39
0.84470379 0.17504349 1.0050083 5.2551509e-39
0.8556394 0.17487879 1.0050076 5.2551509e-39
0.86490279 0.17527211 1.0050076 5.2551509e-39
0.87431979 0.1748665 1.0050081 5.2551509e-39
0.3742854 0.18499704 1.0053605 2.489282e-39
0.52249801 0.18954571 1.0089015 9.219563e-40
0.65557528 0.18458925 1.0091505 1.0049324e-38
0.66531235 0.18477885 1.0066388 1.0141519e-38
0.67304742 0.18503237 1.0044559 1.0233715e-38
0.68181783 0.18561716 1.0009725 1.0233715e-38
0.73960775 0.18494816 1.0002582 2.6736733e-39
0.74413902 0.18486734 1.0056965 2.9502602e-39
0.808393 0.18491812 1.0040016 3.8722165e-39
0.81500942 0.18497409 1.0049061 4.8863684e-39
0.82530212 0.18523322 1.005008 5.2551509e-39
0.83415526 0.18505567 1.0050087 5.2551509e-39
0.84489328 0.18498415 1.0050087 5.2551509e-39
0.85583156 0.18491146 1.0050083 5.2551509e-39
0.86489958 0.18485105 1.0050091 5.2551509e-39
0.87411702 0.18478927 1.0050094 5.2551509e-39
0.3742654 0.19499198 1.0052916 2.489282e-39
0.52412081 0.19253162 1.004331 9.219563e-40
0.65515292 0.19554056 1.009021 1.0049324e-38
0.66577446 0.19487187 1.0063735 1.0141519e-38
0.67398882 0.19467743 1.0039186 1.0233715e-38
0.68253607 0.19259375 1.0005641 1.0233715e-38
0.73959047 0.1949937 1.0002673 2.6736733e-39
0.74414104 0.19491249 1.0056956 3.0424558e-39
0.80839115 0.19481465 1.0040025 3.8722165e-39
0.81497085 0.19511458 1.004895 4.8863684e-39
0.82497013 0.19500524 1.0053798 5.1629553e-39
0.83377975 0.19490699 1.0050097 5.2551509e-39
0.84451205 0.19492622 1.0050092 5.2551509e-39
0.85544127 0.19494535 1.0050099 5.2551509e-39
0.86475277 0.19483837 1.0050105 5.2551509e-39
0.87431288 0.19497754 1.005011 5.2551509e-39
0.36829132 0.2024008 1.0055435 2.6736733e-39
0.37555391 0.20492651 1.0052366 2.3970864e-39
0.64841348 0.20630129 1.0097563 1.0049324e-38
0.65493345 0.20475584 1.0085037 1.0049324e-38
0.66420454 0.20486881 1.006301 1.0049324e-38
0.67479914 0.20552935 1.0028306 1.0141519e-38
0.73825067 0.20409742 1.0003284 2.8580645e-39
0.74417603 0.20424856 1.0056773 2.9502602e-39
0.79892904 0.20391071 1.0060984 3.226847e-39
0.80838937 0.20471109 1.0040034 3.8722165e-39
0.81508183 0.20506285 1.0049045 4.8863684e-39
0.82516277 0.20492542 1.0050102 5.2551509e-39
0.83414191 0.205019 1.0050104 5.2551509e-39
0.84469843 0.2048665 1.0050105 5.2551509e-39
0.85563105 0.20497777 1.0050112 5.2551509e-39
0.86503667 0.20519662 1.005012 5.2551509e-39
0.87431002 0.20489967 1.0050123 5.2551509e-39
0.3771686 0.21498442 1.0051016 2.5814776e-39
0.54496354 0.21371764 1.0028443 3.4112383e-39
0.6495111 0.21314454 1.0091146 1.0049324e-38
0.65538418 0.21570645 1.0076345 1.0049324e-38
0.66484076 0.21481261 1.0054163 1.0049324e-38
0.67439902 0.21451044 1.0023657 1.0141519e-38
0.68048161 0.2126594 1.0002133 1.0233715e-38
0.73823553 0.21718025 1.0018903 7.2834548e-39
0.74578458 0.21567193 1.0047594 6.1771072e-39
0.75382257 0.21330754 1.0072716 4.6097815e-39
0.76105595 0.21229839 1.0095816 4.240999e-39
0.78655946 0.21401197 1.008069 5.0707596e-39
0.79134047 0.21407694 1.0081418 4.5175859e-39
0.80789316 0.21557079 1.0035084 3.0424558e-39
0.81496596 0.21500665 1.0048971 4.8863684e-39
0.82516116 0.21495891 1.0050111 5.2551509e-39
0.83377588 0.21512298 1.0050114 5.2551509e-39
0.84469604 0.21506865 1.005012 5.2551509e-39
0.85582203 0.2150149 1.0050129 5.2551509e-39
0.86488986 0.21518381 1.0050132 5.2551509e-39
0.87450659 0.21482618 1.0050139 5.2551509e-39
0.37691098 0.22518529 1.0048234 2.6736733e-39
0.54600251 0.229168 1.0089431 5.1629553e-39
0.65473598 0.2248092 1.0067483 1.0049324e-38
0.66425812 0.22512273 1.0044062 1.0049324e-38
0.67447603 0.22573106 1.0014358 1.0049324e-38
0.7391057 0.22406395 1.0009897 7.5600416e-39
0.74473888 0.22535343 1.0050459 7.467846e-39
0.75103152 0.22533098 1.0092363 7.6522373e-39
0.80803889 0.2261695 1.0036876 3.1346514e-39
0.81507719 0.22495669 1.0049068 4.8863684e-39
0.82515842 0.22499211 1.0050124 5.2551509e-39
0.8339588 0.22497584 1.0050129 5.2551509e-39
0.84469211 0.22527079 1.0050135 5.2551509e-39
0.85543174 0.22503875 1.0050141 5.2551509e-39
0.86488676 0.22476244 1.0050145 5.2551509e-39
0.87410396 0.22500743 1.0050153 5.2551509e-39
0.36955929 0.23709711 1.000652 5.3473465e-39
0.37434188 0.23444796 1.0051854 4.0566077e-39
0.39294878 0.23330408 1.0077592 4.1488033e-39
0.54762959 0.23433354 1.0078052 5.1629553e-39
0.55119842 0.23855893 1.0072623 5.2551509e-39
0.65698618 0.23411307 1.0048963 9.8649324e-39
0.66500151 0.23522751 1.0029764 9.8649324e-39
0.67363399 0.23519431 1.0009365 9.957128e-39
0.68641669 0.23388027 1.0092151 1.0049324e-38
0.72412127 0.23533164 1.0029196 9.3117586e-39
0.73937017 0.23369178 1.0003827 7.3756504e-39
0.74491274 0.23459791 1.0040648 7.3756504e-39
0.75249159 0.23542941 1.0083088 7.2834548e-39
0.76185715 0.23926118 1.0099626 4.1488033e-39
0.80818224 0.2352479 1.0032982 2.3048907e-39
0.81492054 0.2347645 1.004824 4.5175859e-39
0.82480168 0.23537795 1.0049917 4.978564e-39
0.834176 0.23484205 1.0049992 5.0707596e-39
0.84471422 0.23495613 1.0050037 5.0707596e-39
0.85567284 0.23508908 1.0049927 4.978564e-39
0.86477911 0.23475474 1.0049989 4.978564e-39
0.87442887 0.2349662 1.0049608 5.0707596e-39
0.37563473 0.24288973 1.0043055 5.0707596e-39
0.38172227 0.24665448 1.0073484 5.0707596e-39
0.55451024 0.24203117 1.0055208 5.1629553e-39
0.65948403 0.24132749 1.0032853 9.4039542e-39
0.66560179 0.24223435 1.0015227 8.3898023e-39
0.67302543 0.24085236 1.0004448 9.3117586e-39
0.68772513 0.24333586 1.0040623 8.6663892e-39
0.7447834 0.24046665 1.0006881 6.2693028e-39
0.75404465 0.24117783 1.002974 4.0566077e-39
0.76139444 0.24159859 1.004729 5.3473465e-39
0.80945069 0.24183482 1.0018895 1.6595213e-39
0.81410295 0.2437816 1.0031281 2.489282e-39
0.82497054 0.24355227 1.0038873 3.226847e-39
0.83546478 0.24347346 1.0039163 3.3190427e-39
0.84567094 0.2426873 1.004207 3.4112383e-39
0.85503548 0.24397868 1.0038167 3.0424558e-39
0.86474144 0.24309532 1.0040905 3.5034339e-39
0.87374479 0.24307811 1.0040735 3.5034339e-39
0.88040489 0.24130057 1.0040148 4.5175859e-39
0.36060771 -0.24358843 1.0149326 9.957128e-39
0.37810376 -0.24135765 1.0140132 5.5317378e-39
0.38378707 -0.24525431 1.0160452 5.6239334e-39
0.55567342 -0.2406567 1.0128304 6.3614985e-39
0.37718189 -0.23596045 1.0142254 4.6097815e-39
0.38217035 -0.232945 1.0168142 2.6736733e-39
0.54812223 -0.23217297 1.013923 5.3473465e-39
0.55255717 -0.23634008 1.0154178 5.8083247e-39
0.67327189 -0.23025684 1.0139526 8.0210198e-39
0.74305212 -0.23071457 1.0137513 7.6522373e-39
0.75645274 -0.23343343 1.0114623 8.1132154e-39
0.76433927 -0.23428026 1.0136296 8.5741936e-39
0.77344644 -0.23399083 1.0147017 9.3117586e-39
0.78102916 -0.23225571 1.0138605 9.7727368e-39
0.3690896 -0.2243318 1.0164355 3.0424558e-39
0.37938571 -0.2251309 1.0116116 2.489282e-39
0.38222954 -0.22494888 1.0166174 2.489282e-39
0.54615617 -0.22524318 1.0154275 4.978564e-39
0.75604051 -0.22504093 1.0120291 7.9288242e-39
0.76447302 -0.22497228 1.0148737 8.9429761e-39
0.77426046 -0.22504197 1.0154713 9.4961499e-39
0.37949136 -0.21499769 1.0114629 2.489282e-39
0.38234106 -0.21505104 1.0167085 2.5814776e-39
0.53769106 -0.21346687 1.018503 6.3614985e-39
0.54517734 -0.21645528 1.0171975 3.4112383e-39
0.7557168 -0.2166927 1.0122349 7.0990635e-39
0.76488948 -0.21525933 1.013746 6.5458897e-39
0.77425092 -0.21535809 1.0141503 6.730281e-39
0.78344852 -0.21531488 1.0127038 6.2693028e-39
0.82188356 -0.21353646 1.0108365 3.9644121e-39
0.37809163 -0.20349757 1.0141202 3.0424558e-39
0.38173288 -0.20714755 1.0167384 3.0424558e-39
0.54426563 -0.20997731 1.0198917 3.3190427e-39
0.64764827 -0.20305684 1.0102036 1.0141519e-38
0.74962413 -0.2041885 1.0106469 3.5034339e-39
0.7547428 -0.20423488 1.013447 3.6878252e-39
0.76400179 -0.20385939 1.0166434 4.1488033e-39
0.77408516 -0.20405647 1.0169909 3.6878252e-39
0.35992223 -0.19504417 1.011106 4.5175859e-39
0.37790871 -0.19498277 1.0143756 2.7658689e-39
0.38035524 -0.19512558 1.0192151 4.240999e-39
0.51894844 -0.19214793 1.0166191 2.2126951e-39
0.52119446 -0.19503774 1.0119394 1.1985432e-39
0.53075737 -0.19231243 1.0127652 2.3970864e-39
0.64696008 -0.19501549 1.0106058 1.0141519e-38
0.65033704 -0.19325998 1.0101062 1.0141519e-38
0.74960667 -0.19556662 1.0106558 3.5034339e-39
0.75469863 -0.19485715 1.0135118 3.7800208e-39
0.76403385 -0.19498838 1.0166568 4.3331946e-39
0.77430606 -0.19479257 1.01702 4.7941728e-39
0.37791276 -0.1849907 1.0143851 2.5814776e-39
0.38036719 -0.18485969 1.0192032 3.6878252e-39
0.51738095 -0.18891215 1.0195069 2.9502602e-39
0.64686519 -0.18458748 1.0106612 1.0141519e-38
0.65027273 -0.1860631 1.0101436 1.0141519e-38
0.74958992 -0.18550928 1.0106642 2.6736733e-39
0.75475109 -0.18489759 1.0135419 3.6878252e-39
0.76398849 -0.18503354 1.01665 4.3331946e-39
0.77404088 -0.18496236 1.0171274 4.7019771e-39
0.37792897 -0.17491092 1.0143154 2.489282e-39
0.38048014 -0.17425714 1.0190916 2.9502602e-39
0.54304719 -0.1706522 1.0174139 7.0990635e-39
0.64715111 -0.1749725 1.0102848 1.0049324e-38
0.74957353 -0.17545252 1.0106725 3.5956296e-39
0.7546922 -0.17494455 1.0135146 3.6878252e-39
0.76405823 -0.17514667 1.0164623 4.3331946e-39
0.77421218 -0.1749655 1.0171229 3.7800208e-39
0.8206231 -0.17237242 1.0134857 3.8722165e-39
0.37948874 -0.16508028 1.0113297 2.489282e-39
0.38185722 -0.16430521 1.0155814 2.489282e-39
0.51926386 -0.16578788 1.0119069 5.3473465e-39
0.52899283 -0.16412269 1.0194623 6.1771072e-39
0.53556228 -0.16282678 1.0184599 6.3614985e-39
0.54394001 -0.16269699 1.017989 3.7800208e-39
0.63834465 -0.16142391 1.0112777 1.0141519e-38
0.64344484 -0.16512662 1.0104667 1.0049324e-38
0.74963439 -0.16900621 1.0106418 2.9502602e-39
0.75500625 -0.16617277 1.0124594 4.1488033e-39
0.7646839 -0.16601016 1.0138245 3.7800208e-39
0.77471983 -0.16636908 1.0145111 3.5956296e-39
0.78468102 -0.16478781 1.0130326 4.240999e-39
0.37947705 -0.15465347 1.010895 2.5814776e-39
0.38185447 -0.15502553 1.015946 2.5814776e-39
0.54577893 -0.15497416 1.0164111 4.3331946e-39
0.61809087 -0.15058786 1.0190003 9.5883455e-39
0.62791502 -0.15315101 1.0145662 1.0049324e-38
0.63607162 -0.15465668 1.0117148 1.0049324e-38
0.64211023 -0.15637617 1.0102251 9.957128e-39
0.75578237 -0.15469165 1.0122025 8.1132154e-39
0.764117 -0.1550633 1.0150739 8.9429761e-39
0.77399808 -0.15518185 1.0156786 9.4039542e-39
0.78418332 -0.15684527 1.0139159 9.3117586e-39
0.37917829 -0.14548102 1.0115832 2.7658689e-39
0.3820233 -0.14575033 1.0162448 2.6736733e-39
0.39729568 -0.14196439 1.0197058 5.3473465e-39
0.54741895 -0.14560258 1.014657 5.1629553e-39
0.55129468 -0.1416962 1.0168945 5.3473465e-39
0.57591259 -0.14170043 1.0165406 2.489282e-39
0.58459705 -0.14148635 1.0167071 2.3048907e-39
0.59579039 -0.14225702 1.0158066 2.3970864e-39
0.60599214 -0.14258891 1.0148898 3.5034339e-39
0.61450326 -0.14268158 1.0153028 7.3756504e-39
0.62463701 -0.14449088 1.0139797 9.6805411e-39
0.63353819 -0.14577578 1.0113202 9.8649324e-39
0.7562691 -0.14495024 1.0117733 8.0210198e-39
0.76474839 -0.14472632 1.014483 8.7585848e-39
0.77442992 -0.14549817 1.015126 9.4961499e-39
0.78244656 -0.14264369 1.013183 8.7585848e-39
0.81210434 -0.14345102 1.0109811 2.5814776e-39
0.37697992 -0.13648564 1.01451 5.1629553e-39
0.38241959 -0.13215326 1.0162293 5.1629553e-39
0.40093017 -0.13930917 1.0143392 5.1629553e-39
0.55491012 -0.1373332 1.0145822 5.5317378e-39
0.56189209 -0.13552897 1.0143123 7.0068679e-39
0.57680511 -0.13926154 1.0115191 2.9502602e-39
0.58489215 -0.13854215 1.0118836 3.1346514e-39
0.59499592 -0.13947554 1.0114129 2.9502602e-39
0.60264903 -0.13654576 1.0128411 5.0707596e-39
0.61500448 -0.13766076 1.0119534 6.4536941e-39
0.62340331 -0.13817307 1.011346 9.1273674e-39
0.63379955 -0.13557932 1.0119841 6.730281e-39
0.6439687 -0.13270341 1.0186685 7.1912591e-39
0.75806302 -0.13895948 1.011068 7.5600416e-39
0.76508987 -0.13801591 1.0122521 7.0990635e-39
0.77469313 -0.13773805 1.0123757 7.0990635e-39
0.78223777 -0.13775104 1.0109363 6.5458897e-39
0.38618064 -0.12876201 1.0146749 5.1629553e-39
0.39526278 -0.12797575 1.0147601 5.1629553e-39
0.40509057 -0.12680207 1.0147758 5.1629553e-39
0.41476363 -0.12508442 1.0150894 5.1629553e-39
0.42447346 -0.1236731 1.0150244 5.1629553e-39
0.43501371 -0.12289758 1.0151129 5.1629553e-39
0.44504869 -0.12226748 1.0150619 5.3473465e-39
0.45507205 -0.12226754 1.0152445 5.4395422e-39
0.46462584 -0.12264718 1.0153714 5.5317378e-39
0.47523761 -0.12372758 1.0144758 5.6239334e-39
0.48486543 -0.12514269 1.0152031 5.6239334e-39
0.4950735 -0.12694196 1.0155315 5.4395422e-39
0.50530785 -0.12799753 1.0152012 5.6239334e-39
0.51192254 -0.12800226 1.0125113 6.0849116e-39
0.755732 -0.12703305 1.0189134 5.7161291e-39
0.40461299 -0.11991989 1.0112437 2.7658689e-39
0.46047178 -0.11155244 1.0152133 5.1629553e-39
0.49798319 -0.11517853 1.015203 5.1629553e-39
0.48896983 0.11441782 1.0199372 6.3614985e-39
0.38620433 0.12876207 1.0148808 5.6239334e-39
0.39533445 0.12799892 1.0150478 5.5317378e-39
0.40567702 0.12695619 1.0145531 5.7161291e-39
0.41485262 0.12510046 1.015089 5.8083247e-39
0.4248876 0.12362549 1.0150349 5.9927159e-39
0.43473315 0.12260947 1.0152361 6.1771072e-39
0.44509113 0.12237087 1.0152814 6.2693028e-39
0.45491639 0.12230497 1.0155549 6.3614985e-39
0.46519518 0.12275972 1.0146269 6.4536941e-39
0.47497267 0.12373226 1.0148228 6.4536941e-39
0.4840517 0.12477107 1.0151002 6.4536941e-39
0.49453446 0.12708259 1.0150716 6.2693028e-39
0.50475949 0.12797442 1.014977 6.5458897e-39
0.51251149 0.12799761 1.0134472 6.9146722e-39
0.37715673 0.13633975 1.0145367 5.4395422e-39
0.38233703 0.13180649 1.0158775 5.6239334e-39
0.48014891 0.13749985 1.0183547 5.8083247e-39
0.55468571 0.1373641 1.0143461 6.1771072e-39
0.56187177 0.13577417 1.0147296 7.7444329e-39
0.57721126 0.13917486 1.0111731 3.5034339e-39
0.58493495 0.13917896 1.0117763 3.1346514e-39
0.59424204 0.1395438 1.0114422 2.8580645e-39
0.61467355 0.13823318 1.0122428 6.3614985e-39
0.62426019 0.13809711 1.0109732 9.4039542e-39
0.63028812 0.13891348 1.0102429 9.8649324e-39
0.75840497 0.1389787 1.0111566 8.1132154e-39
0.76554316 0.1379693 1.0121707 8.3898023e-39
0.77401942 0.13753654 1.0121354 8.1132154e-39
0.78184581 0.138717 1.0119078 8.7585848e-39
0.37866098 0.14471728 1.0120285 3.0424558e-39
0.38223025 0.14576557 1.0165292 2.489282e-39
0.54757231 0.14530368 1.0150276 5.2551509e-39
0.55139309 0.1415579 1.0171267 5.7161291e-39
0.57708114 0.14178191 1.0165786 3.1346514e-39
0.58468151 0.14158963 1.0167357 2.7658689e-39
0.5943588 0.14201672 1.0158821 2.6736733e-39
0.60540795 0.14246199 1.0148251 3.5034339e-39
0.61499947 0.14306718 1.0153836 7.6522373e-39
0.62468058 0.14443104 1.0139544 9.957128e-39
0.63408059 0.14542459 1.0109965 1.0049324e-38
0.64960837 0.14820611 1.014918 8.8507805e-39
0.74456841 0.14063235 1.0130798 6.730281e-39
0.75621367 0.14569697 1.0116982 8.0210198e-39
0.76444834 0.14449459 1.0143141 8.9429761e-39
0.77393413 0.14529353 1.0151057 9.5883455e-39
0.78132743 0.14364514 1.0137179 9.7727368e-39
0.3794347 0.15500873 1.0115632 2.489282e-39
0.38226467 0.15495016 1.0166659 2.489282e-39
0.5366199 0.15876122 1.0157534 6.4536941e-39
0.5452581 0.15543906 1.015813 4.3331946e-39
0.62518704 0.1515605 1.0158355 1.0141519e-38
0.63730294 0.15454309 1.0112876 1.0141519e-38
0.64208204 0.15608214 1.0102907 1.0141519e-38
0.7557646 0.15541668 1.0122114 7.8366285e-39
0.76435995 0.15484837 1.0150621 8.8507805e-39
0.77404666 0.15506878 1.0157325 9.3117586e-39
0.78584129 0.1575339 1.0131267 8.2054111e-39
0.37920117 0.16523968 1.0118802 2.6736733e-39
0.38222978 0.16428849 1.0165473 2.5814776e-39
0.52915227 0.16347489 1.0193505 5.9005203e-39
0.53491503 0.16252203 1.0185695 6.3614985e-39
0.54405624 0.16242655 1.0179977 3.7800208e-39
0.55019951 0.16364592 1.0101155 7.467846e-39
0.64393002 0.16366267 1.0104259 1.0141519e-38
0.74964952 0.16920708 1.0106342 3.5034339e-39
0.75485319 0.16696401 1.0127339 3.7800208e-39
0.76477289 0.16543727 1.0140129 4.1488033e-39
0.77481669 0.16623457 1.0143009 3.6878252e-39
0.78506196 0.16530973 1.0123212 3.7800208e-39
0.7980774 0.16254491 1.0125775 3.9644121e-39
0.37794396 0.17498747 1.0143945 3.0424558e-39
0.38038591 0.17470075 1.0191846 4.5175859e-39
0.64745504 0.17545842 1.0103165 1.0141519e-38
0.7496413 0.17495 1.0106384 3.5956296e-39
0.75473505 0.17529511 1.0134934 3.7800208e-39
0.76404005 0.17475292 1.016625 4.3331946e-39
0.77439833 0.17517821 1.0170339 3.9644121e-39
0.37792841 0.1850252 1.0143973 2.7658689e-39
0.38036537 0.18496542 1.019205 4.0566077e-39
0.51859123 0.18612896 1.0172678 2.3970864e-39
0.52103251 0.18901451 1.0122882 1.1985432e-39
0.53306824 0.18461439 1.018959 4.978564e-39
0.6468724 0.18506321 1.0106571 1.0141519e-38
0.65031922 0.1857231 1.0101166 1.0141519e-38
0.74962682 0.18499987 1.0106456 2.7658689e-39
0.75463027 0.18525539 1.0134516 3.6878252e-39
0.76399934 0.1848491 1.0166383 4.3331946e-39
0.77434373 0.18490775 1.0170599 4.7019771e-39
0.3778747 0.19496132 1.0142993 2.489282e-39
0.38037813 0.19524437 1.0191925 3.4112383e-39
0.51896393 0.19347326 1.0117675 9.219563e-40
0.52162015 0.19013332 1.0109361 9.219563e-40
0.64710599 0.19487296 1.0105205 1.0141519e-38
0.65036935 0.19225962 1.0100874 1.0141519e-38
0.74961245 0.19504932 1.0106529 3.4112383e-39
0.75472862 0.19520465 1.0134969 3.6878252e-39
0.76404619 0.19502483 1.0166222 4.3331946e-39
0.77433252 0.19464548 1.0170654 4.5175859e-39
0.37801075 0.20301767 1.0142151 2.489282e-39
0.38182944 0.20709628 1.0163375 2.5814776e-39
0.64780855 0.2015703 1.0101099 1.0049324e-38
0.74965543 0.20439489 1.0106312 3.4112383e-39
0.75474572 0.20446581 1.0134223 3.5956296e-39
0.76399565 0.20428218 1.0165462 4.0566077e-39
0.77439803 0.20391482 1.0170343 3.3190427e-39
0.87310714 0.20422547 1.018795 4.5175859e-39
0.37957573 0.21492215 1.0107077 2.5814776e-39
0.38187441 0.21499361 1.0157968 2.5814776e-39
0.53744555 0.21275203 1.0186728 6.2693028e-39
0.54483181 0.21600446 1.0171115 3.4112383e-39
0.7558707 0.21657263 1.0121584 7.467846e-39
0.7646755 0.21500392 1.0133507 6.4536941e-39
0.77422547 0.21574135 1.0143673 7.2834548e-39
0.7841109 0.21585782 1.013057 7.0068679e-39
0.36389121 0.22697367 1.0118738 2.6736733e-39
0.37948972 0.22567524 1.011167 2.5814776e-39
0.38187507 0.2248279 1.0159937 2.5814776e-39
0.54615271 0.2252422 1.0152931 4.7941728e-39
0.75605404 0.22473039 1.0120676 8.0210198e-39
0.76454687 0.22491695 1.0148667 8.9429761e-39
0.7744996 0.22521746 1.0153564 9.5883455e-39
0.37710935 0.23609079 1.0142733 4.7941728e-39
0.38192925 0.23292144 1.0164138 2.8580645e-39
0.54816258 0.23217438 1.0136977 5.1629553e-39
0.55277967 0.23651946 1.0156641 5.3473465e-39
0.75629735 0.23325309 1.0114825 7.8366285e-39
0.76458997 0.23396009 1.0139107 8.2976067e-39
0.77341795 0.23409803 1.0147156 9.0351717e-39
0.78140336 0.23214059 1.0136815 8.6663892e-39
0.37826028 0.24145995 1.0136269 5.1629553e-39
0.38359505 0.24500383 1.0157547 5.1629553e-39
0.40021437 0.24713323 1.0193775 3.4112383e-39
0.55453384 0.24018578 1.0107958 5.3473465e-39
0.7663607 0.2401375 1.0100706 4.5175859e-39
0.37986976 -0.24030752 1.020349 5.5317378e-39
0.38595027 -0.24294835 1.024675 5.8083247e-39
0.39378098 -0.24677899 1.0270032 5.9927159e-39
0.37916392 -0.23724724 1.0215331 5.3473465e-39
0.38509035 -0.23494837 1.0252571 4.0566077e-39
0.39034778 -0.23254666 1.0289912 2.6736733e-39
0.54985547 -0.23107965 1.0202425 5.6239334e-39
0.5534665 -0.23309615 1.0246958 5.9005203e-39
0.3870998 -0.2249749 1.0242443 2.5814776e-39
0.39035511 -0.22507425 1.0290731 2.6736733e-39
0.54747909 -0.22417571 1.0242301 5.1629553e-39
0.55106205 -0.22820845 1.0278934 5.3473465e-39
0.3870708 -0.21498087 1.0244672 2.5814776e-39
0.39038259 -0.21503916 1.0290169 2.6736733e-39
0.53542924 -0.21030998 1.0204618 6.2693028e-39
0.54601717 -0.21489227 1.0247953 4.978564e-39
0.75418067 -0.21195661 1.0204735 4.6097815e-39
0.38493404 -0.2044545 1.0249528 4.1488033e-39
0.39077723 -0.20846245 1.0288614 2.6736733e-39
0.52869165 -0.20193529 1.0240984 7.0068679e-39
0.53502095 -0.20451975 1.0230069 6.9146722e-39
0.54532176 -0.20512825 1.0254444 4.5175859e-39
0.38420051 -0.19501595 1.0252087 4.7019771e-39
0.40190125 -0.19279948 1.0269927 3.5034339e-39
0.52750397 -0.19451202 1.0257427 7.0990635e-39
0.53507626 -0.1947155 1.0255607 7.0990635e-39
0.54494399 -0.19503894 1.0266398 4.7941728e-39
0.38426629 -0.18505973 1.0252945 4.7019771e-39
0.51405001 -0.18578108 1.0245908 2.3048907e-39
0.5271135 -0.18485573 1.0260663 7.0990635e-39
0.53509039 -0.1848916 1.0259259 7.0990635e-39
0.54479808 -0.18465121 1.0267787 4.240999e-39
0.3842358 -0.17492546 1.0251542 4.4253902e-39
0.52612352 -0.17474601 1.0242264 6.9146722e-39
0.5350439 -0.17495382 1.0240844 6.9146722e-39
0.54494101 -0.17461608 1.0256281 4.6097815e-39
0.7704528 -0.17297538 1.0231814 7.6522373e-39
0.37806836 -0.1668745 1.029537 3.5034339e-39
0.38674727 -0.16455144 1.0241659 2.6736733e-39
0.39083171 -0.16429916 1.0291816 2.9502602e-39
0.52764362 -0.16775312 1.0214589 6.5458897e-39
0.53499264 -0.16772898 1.0212921 6.6380854e-39
0.54558945 -0.16524206 1.0245566 4.7019771e-39
0.64200199 -0.16834226 1.0219765 1.0049324e-38
0.3867254 -0.1549594 1.0241015 2.7658689e-39
0.3904483 -0.15522628 1.0289555 2.9502602e-39
0.54684019 -0.15477067 1.0249296 5.1629553e-39
0.55013376 -0.15062499 1.0296113 5.1629553e-39
0.78208232 -0.15039992 1.0204736 5.2551509e-39
0.38668248 -0.14590949 1.0241961 2.8580645e-39
0.3908107 -0.14589307 1.0292569 3.0424558e-39
0.54879564 -0.14812201 1.0232958 5.1629553e-39
0.55334854 -0.14381658 1.025533 5.3473465e-39
0.56317419 -0.14252764 1.0272635 6.3614985e-39
0.57619983 -0.14421035 1.0233163 2.3970864e-39
0.58436412 -0.14365573 1.0236832 2.8580645e-39
0.59500676 -0.14385793 1.0247992 4.0566077e-39
0.6045627 -0.14438358 1.0227706 7.0068679e-39
0.61194032 -0.14721103 1.021269 9.0351717e-39
0.37922633 -0.13831979 1.0212201 5.2551509e-39
0.38470685 -0.13495255 1.0250593 5.3473465e-39
0.39176595 -0.13119802 1.0283651 5.3473465e-39
0.42948243 -0.13988018 1.0242947 5.1629553e-39
0.45215803 -0.13080168 1.0232047 7.2834548e-39
0.54904205 -0.13991678 1.0242536 5.2551509e-39
0.55699378 -0.13904168 1.0222375 5.6239334e-39
0.56176394 -0.13895312 1.0217187 6.730281e-39
0.38922998 -0.12939106 1.0217057 5.2551509e-39
0.39453205 -0.12866196 1.0253203 5.2551509e-39
0.40540057 -0.12785889 1.0243013 5.1629553e-39
0.41521552 -0.12690756 1.0248467 5.1629553e-39
0.42479995 -0.12537561 1.0250193 5.1629553e-39
0.43492183 -0.12454652 1.0253284 5.3473465e-39
0.44457373 -0.12402357 1.0250534 5.4395422e-39
0.45529053 -0.12428864 1.0251878 5.5317378e-39
0.46495062 -0.12466587 1.0250704 5.6239334e-39
0.47469479 -0.12536116 1.0253516 5.7161291e-39
0.48512331 -0.12702011 1.0253664 5.4395422e-39
0.4949069 -0.12794749 1.0250266 5.5317378e-39
0.5034104 -0.12802354 1.0245301 6.1771072e-39
0.38870332 0.12923928 1.0215586 5.7161291e-39
0.39449555 0.12869224 1.025667 5.9005203e-39
0.40538225 0.12787524 1.0245379 5.8083247e-39
0.41491628 0.12673324 1.0248942 5.8083247e-39
0.42507118 0.12549886 1.024953 5.9927159e-39
0.43495235 0.12470188 1.0251397 6.1771072e-39
0.44498959 0.12435073 1.0252165 6.2693028e-39
0.45476282 0.12432285 1.0251511 6.3614985e-39
0.46461672 0.12474232 1.0250496 6.2693028e-39
0.47481114 0.12557893 1.025263 6.2693028e-39
0.48471609 0.12699775 1.0259587 6.1771072e-39
0.4954969 0.12794371 1.0247506 6.4536941e-39
0.50388122 0.1279837 1.0243008 7.0990635e-39
0.37917221 0.13812077 1.021525 5.4395422e-39
0.38468146 0.13479465 1.0252147 5.8083247e-39
0.39166015 0.13109452 1.0284642 6.0849116e-39
0.40530851 0.13458352 1.0231962 7.1912591e-39
0.55674958 0.13898678 1.0219229 6.5458897e-39
0.5620212 0.13929701 1.0223805 7.5600416e-39
0.37961805 0.14072515 1.0205971 5.1629553e-39
0.38670218 0.14544508 1.0244761 2.8580645e-39
0.39036047 0.14588886 1.0290376 2.6736733e-39
0.54875422 0.14793693 1.0229148 5.2551509e-39
0.55328763 0.14384119 1.0255572 5.9005203e-39
0.56378925 0.14204425 1.0278554 6.730281e-39
0.57669616 0.14386833 1.0227311 3.3190427e-39
0.58457452 0.14363077 1.0239227 3.3190427e-39
0.59501177 0.14354442 1.0250386 4.7019771e-39
0.60409766 0.14415878 1.0224842 6.730281e-39
0.61162496 0.14545387 1.0200424 9.1273674e-39
0.38714159 0.15507382 1.0244256 2.5814776e-39
0.39036047 0.15523918 1.0290376 2.6736733e-39
0.54693782 0.15467775 1.0250605 5.1629553e-39
0.56100708 0.15756883 1.0254297 9.219563e-39
0.57338804 0.15576157 1.0231856 9.219563e-39
0.386722 0.16484906 1.0244222 2.8580645e-39
0.39040554 0.16413881 1.0289954 2.7658689e-39
0.52745146 0.16752101 1.0215182 6.6380854e-39
0.53513306 0.1674674 1.0213282 6.730281e-39
0.5456183 0.16528864 1.0245386 4.6097815e-39
0.38424882 0.17503265 1.0252457 4.7941728e-39
0.5118686 0.1796637 1.0274863 2.489282e-39
0.52648765 0.17455339 1.0242174 7.0990635e-39
0.5349673 0.17483786 1.024122 7.0990635e-39
0.54489857 0.17475969 1.0256876 4.7019771e-39
0.74594873 0.17853096 1.0240337 2.489282e-39
0.38420561 0.18498945 1.025194 4.7019771e-39
0.51436943 0.18202835 1.0241402 2.489282e-39
0.52729976 0.18510307 1.0260768 7.1912591e-39
0.53520101 0.18487653 1.0259157 7.0990635e-39
0.54491407 0.18487801 1.0268817 4.6097815e-39
0.38416329 0.194914 1.0251251 4.5175859e-39
0.52734995 0.19423738 1.0256793 6.9146722e-39
0.5349735 0.19487683 1.0254757 7.0068679e-39
0.54488587 0.19514477 1.0266539 4.3331946e-39
0.64771819 0.19979347 1.0203626 1.0233715e-38
0.38519442 0.20466481 1.0247293 3.7800208e-39
0.3915281 0.20817471 1.0281593 2.489282e-39
0.40918201 0.20252004 1.0285889 5.3473465e-39
0.52890921 0.20212506 1.0239476 6.8224766e-39
0.53523862 0.20468499 1.022789 6.730281e-39
0.54532903 0.20515884 1.0252382 4.7019771e-39
0.65502369 0.20629413 1.0230849 1.0049324e-38
0.38683987 0.21508075 1.0241251 2.7658689e-39
0.39068311 0.21463482 1.0290915 2.9502602e-39
0.53358448 0.21008141 1.0203662 6.2693028e-39
0.54599464 0.2149196 1.0247829 4.8863684e-39
0.55378878 0.21722527 1.0284634 4.4253902e-39
0.38663921 0.2249071 1.0240165 2.7658689e-39
0.39064392 0.22541498 1.0291569 2.9502602e-39
0.54763329 0.22428183 1.0244913 5.1629553e-39
0.55119544 0.22821887 1.0282375 5.1629553e-39
0.37919283 0.23717688 1.0212333 5.3473465e-39
0.38497424 0.23477082 1.0250595 4.240999e-39
0.39118862 0.23279087 1.0291641 3.1346514e-39
0.54993814 0.23109806 1.0201869 5.2551509e-39
0.55348492 0.23312289 1.0245676 5.3473465e-39
0.38568211 0.24270196 1.0242927 5.2551509e-39
0.39262253 0.24623463 1.0264474 5.3473465e-39
0.38915133 -0.24115394 1.0314417 6.1771072e-39
0.3947686 -0.24271502 1.0351732 6.3614985e-39
0.4016625 -0.24630326 1.0358628 6.3614985e-39
0.38792127 -0.23670872 1.0325236 5.7161291e-39
0.39452666 -0.23424265 1.0355656 3.9644121e-39
0.40096793 -0.2325934 1.0396223 3.1346514e-39
0.50582224 -0.23521096 1.0370206 6.3614985e-39
0.55502337 -0.23114613 1.0322161 6.0849116e-39
0.38354018 -0.22927251 1.0303667 6.2693028e-39
0.39538375 -0.22510736 1.0343696 2.9502602e-39
0.40103298 -0.22489196 1.0395945 3.1346514e-39
0.5492748 -0.22184436 1.031669 5.7161291e-39
0.55245012 -0.22511451 1.0354351 6.0849116e-39
0.57010293 -0.2270294 1.0397859 6.2693028e-39
0.58294022 -0.22862633 1.0386965 5.5317378e-39
0.39548397 -0.21508771 1.0344357 2.9502602e-39
0.40103018 -0.21492554 1.039454 3.1346514e-39
0.53466773 -0.21219566 1.0380986 9.3117586e-39
0.54823917 -0.21468139 1.0338153 5.7161291e-39
0.55082983 -0.21539086 1.0386401 6.5458897e-39
0.56926531 -0.21672942 1.0396154 3.7800208e-39
0.38899922 -0.20307004 1.0315834 4.978564e-39
0.39447814 -0.20511386 1.0357256 4.4253902e-39
0.40094689 -0.20890313 1.0390168 3.1346514e-39
0.54751951 -0.20486112 1.0348846 5.6239334e-39
0.55046135 -0.20575684 1.0396475 6.5458897e-39
0.38898399 -0.19515577 1.0315977 5.0707596e-39
0.39377823 -0.19517829 1.0366657 5.2551509e-39
0.54745728 -0.19517441 1.0353789 5.8083247e-39
0.55060142 -0.19984344 1.039999 6.730281e-39
0.38897493 -0.18492073 1.0316062 4.978564e-39
0.39377445 -0.18494505 1.0366701 5.2551509e-39
0.50971752 -0.18171376 1.03034 2.489282e-39
0.54753762 -0.18515238 1.0353234 5.7161291e-39
0.55062544 -0.18169658 1.0399837 6.730281e-39
0.3889915 -0.17481905 1.031546 4.978564e-39
0.39378506 -0.17469715 1.0365986 5.0707596e-39
0.50403917 -0.17494836 1.0363066 2.3048907e-39
0.54735863 -0.17503549 1.0348201 5.6239334e-39
0.55038917 -0.17494297 1.0394728 6.6380854e-39
0.38989115 -0.16974176 1.0301151 2.489282e-39
0.39541179 -0.16468209 1.0346277 3.0424558e-39
0.40088046 -0.16420668 1.0388416 3.3190427e-39
0.5016607 -0.16975859 1.0386343 2.0283039e-39
0.53883088 -0.16517276 1.0367079 6.8224766e-39
0.54779077 -0.16516675 1.0343595 5.6239334e-39
0.55061406 -0.16444741 1.0391312 6.4536941e-39
0.39544234 -0.15515855 1.0344729 3.1346514e-39
0.40100479 -0.15492228 1.0395898 3.3190427e-39
0.54876548 -0.15697888 1.0326943 5.5317378e-39
0.55149508 -0.15388069 1.0362964 5.9005203e-39
0.38898864 -0.1405289 1.0347575 6.1771072e-39
0.39561054 -0.14596511 1.0350045 3.3190427e-39
0.40069312 -0.14706258 1.0395813 3.3190427e-39
0.49342096 -0.14264257 1.0346828 5.9005203e-39
0.55488479 -0.14686741 1.0344121 5.6239334e-39
0.56525952 -0.14616348 1.034852 6.6380854e-39
0.57477868 -0.14596681 1.0351833 6.5458897e-39
0.58440876 -0.14547625 1.0353136 6.730281e-39
0.59277654 -0.14636223 1.0339744 6.2693028e-39
0.38781816 -0.1370312 1.0325122 5.8083247e-39
0.39429507 -0.13422303 1.0358218 5.8083247e-39
0.402192 -0.13105136 1.0390036 5.9005203e-39
0.42779744 -0.13075894 1.0347164 7.7444329e-39
0.49882847 -0.13167512 1.038296 7.3756504e-39
0.50384361 -0.13264595 1.0357914 7.7444329e-39
0.39814284 -0.12933615 1.0320735 5.4395422e-39
0.40466627 -0.12860703 1.0356334 5.5317378e-39
0.41492498 -0.12797616 1.0349349 5.3473465e-39
0.42505649 -0.12739368 1.0344174 5.1629553e-39
0.43509683 -0.12681705 1.0348766 5.2551509e-39
0.44490388 -0.12656587 1.0352634 5.3473465e-39
0.45469388 -0.12644358 1.0349654 5.4395422e-39
0.46463743 -0.12691732 1.0350548 5.4395422e-39
0.47442779 -0.1274154 1.0348713 5.3473465e-39
0.48524025 -0.1279995 1.0354643 5.7161291e-39
0.4946923 -0.12825209 1.0339357 6.3614985e-39
0.50384963 -0.12925129 1.0305402 6.9146722e-39
0.47013277 0.11288407 1.0364795 6.2693028e-39
0.39843798 0.12926771 1.0318059 6.1771072e-39
0.40458331 0.12871088 1.0357757 6.2693028e-39
0.41540107 0.12764356 1.0344654 6.0849116e-39
0.42536396 0.12752442 1.0343142 5.9927159e-39
0.43520254 0.1269204 1.0347191 6.0849116e-39
0.44470438 0.12658294 1.035293 6.1771072e-39
0.45494774 0.12663063 1.0348687 6.2693028e-39
0.46504676 0.12700574 1.0346315 6.0849116e-39
0.47461909 0.12744197 1.0349592 6.0849116e-39
0.48545408 0.12791844 1.0357457 6.730281e-39
0.49487352 0.12819743 1.0338103 7.2834548e-39
0.50029582 0.12818161 1.0317667 7.6522373e-39
0.3880989 0.13714606 1.032145 6.1771072e-39
0.39416739 0.13427375 1.0356375 6.4536941e-39
0.40153018 0.13117503 1.0385015 6.5458897e-39
0.4769066 0.1329242 1.0353894 6.1771072e-39
0.48855868 0.13499342 1.0317997 8.2976067e-39
0.49489692 0.13302852 1.0365126 7.6522373e-39
0.5023002 0.13211308 1.0368814 7.9288242e-39
0.38750663 0.14010698 1.0329741 5.6239334e-39
0.39533818 0.14560004 1.0346546 3.0424558e-39
0.40098751 0.14602707 1.039605 3.1346514e-39
0.54700744 0.14136502 1.0381042 9.219563e-39
0.55469263 0.14692101 1.0341959 6.0849116e-39
0.56565368 0.14617072 1.034856 7.2834548e-39
0.57496995 0.14594217 1.0352912 7.467846e-39
0.58432585 0.14541711 1.0352371 7.3756504e-39
0.5925557 0.14646837 1.034279 6.730281e-39
0.38380337 0.15408997 1.0366542 3.1346514e-39
0.39545116 0.15519215 1.0344191 2.9502602e-39
0.40105551 0.15494303 1.0395451 3.1346514e-39
0.54862338 0.15662289 1.0326642 5.7161291e-39
0.55159503 0.15387675 1.0365365 6.2693028e-39
0.3896794 0.16967958 1.0309501 4.8863684e-39
0.39537865 0.16461708 1.0345076 3.226847e-39
0.4009904 0.16430314 1.0392622 3.1346514e-39
0.50171727 0.16931887 1.0385947 1.6595213e-39
0.54785413 0.16499372 1.0342489 5.6239334e-39
0.55060703 0.16407116 1.0390503 6.4536941e-39
0.3889865 0.1751036 1.031551 5.1629553e-39
0.39372727 0.1749925 1.0366277 5.3473465e-39
0.50516909 0.17438774 1.0348526 2.2126951e-39
0.54753107 0.17492062 1.0352609 5.7161291e-39
0.55056322 0.17418072 1.039891 6.6380854e-39
